-1.777156442403793335e-01 2.255852334201335907e-02 2.820332348346710205e-02 1.040000076293945312e+02 6.000000381469726562e+01 3.200000000000000000e+01
7.603695988655090332e-02 2.314833737909793854e-02 -1.102735176682472229e-01 1.030000076293945312e+02 5.700000381469726562e+01 2.800000190734863281e+01
4.777682125568389893e-01 1.629160717129707336e-02 7.535166293382644653e-02 9.500000000000000000e+01 9.600000762939453125e+01 1.000000076293945312e+02
4.421120584011077881e-01 2.247002907097339630e-02 1.071808859705924988e-01 9.600000762939453125e+01 9.700000762939453125e+01 1.000000076293945312e+02
4.115103781223297119e-01 -6.208416307345032692e-04 1.492892354726791382e-01 9.500000000000000000e+01 9.600000762939453125e+01 9.900000762939453125e+01
1.413110047578811646e-01 -1.666483841836452484e-02 -2.181505039334297180e-02 1.010000076293945312e+02 5.300000381469726562e+01 2.200000000000000000e+01
2.041116505861282349e-01 -1.679734326899051666e-02 1.186107769608497620e-01 9.500000000000000000e+01 9.600000762939453125e+01 1.000000076293945312e+02
-4.400337338447570801e-01 2.277925238013267517e-02 9.101327508687973022e-02 1.070000076293945312e+02 6.100000381469726562e+01 3.500000000000000000e+01
-4.327756464481353760e-01 -1.608048938214778900e-02 8.142931014299392700e-02 1.020000076293945312e+02 5.400000381469726562e+01 2.600000190734863281e+01
3.122637569904327393e-01 1.630807295441627502e-02 2.177157811820507050e-02 1.770000000000000000e+02 1.880000000000000000e+02 2.020000152587890625e+02
-4.531168341636657715e-01 2.270861715078353882e-02 9.434466063976287842e-02 1.080000076293945312e+02 6.100000381469726562e+01 3.500000000000000000e+01
4.838636219501495361e-01 2.028261311352252960e-02 1.451607942581176758e-01 9.500000000000000000e+01 9.600000762939453125e+01 1.000000076293945312e+02
3.370392322540283203e-01 3.992841229774057865e-04 -1.313536893576383591e-03 1.800000000000000000e+02 1.910000000000000000e+02 2.050000152587890625e+02
3.689640760421752930e-01 2.203819341957569122e-02 1.373896747827529907e-01 9.600000762939453125e+01 9.700000762939453125e+01 1.000000076293945312e+02
3.654854595661163330e-01 -1.625916175544261932e-02 7.364243268966674805e-02 9.500000000000000000e+01 9.600000762939453125e+01 1.000000076293945312e+02
1.985327005386352539e-01 3.252937458455562592e-03 -4.597732424736022949e-02 9.800000762939453125e+01 5.200000381469726562e+01 2.100000000000000000e+01
2.730927467346191406e-01 2.251995727419853210e-02 1.310931295156478882e-01 9.600000762939453125e+01 9.700000762939453125e+01 1.010000076293945312e+02
1.363157480955123901e-01 2.418227866291999817e-02 8.973212540149688721e-02 1.000000076293945312e+02 6.300000381469726562e+01 4.300000000000000000e+01
-3.750906884670257568e-02 2.416981756687164307e-02 4.104039818048477173e-02 1.030000076293945312e+02 5.800000381469726562e+01 3.100000190734863281e+01
1.976061612367630005e-02 -1.596767082810401917e-02 -1.076005026698112488e-01 1.000000076293945312e+02 5.300000381469726562e+01 2.200000000000000000e+01
3.718487024307250977e-01 2.221382968127727509e-02 1.315151005983352661e-01 9.600000762939453125e+01 9.700000762939453125e+01 1.000000076293945312e+02
3.179158568382263184e-01 1.668758690357208252e-02 1.416783127933740616e-02 1.780000000000000000e+02 1.890000000000000000e+02 2.030000152587890625e+02
6.776716560125350952e-02 2.501435950398445129e-02 1.910755410790443420e-02 9.900000762939453125e+01 5.500000381469726562e+01 2.800000190734863281e+01
-3.559198677539825439e-01 -1.715474948287010193e-02 6.102249771356582642e-02 1.010000076293945312e+02 5.400000381469726562e+01 2.700000190734863281e+01
-1.974621117115020752e-01 1.100517343729734421e-02 -1.413540076464414597e-02 1.060000076293945312e+02 5.800000381469726562e+01 2.900000190734863281e+01
2.703972756862640381e-01 -1.656007580459117889e-02 1.314384043216705322e-01 9.500000000000000000e+01 9.600000762939453125e+01 1.000000076293945312e+02
1.133538708090782166e-01 1.574125327169895172e-02 1.581577658653259277e-01 9.500000000000000000e+01 9.600000762939453125e+01 1.000000076293945312e+02
-2.263102214783430099e-03 2.398377470672130585e-02 -5.694641545414924622e-02 1.040000076293945312e+02 5.700000381469726562e+01 2.900000190734863281e+01
2.800187095999717712e-02 3.198496066033840179e-03 -1.211614683270454407e-01 1.010000076293945312e+02 5.300000381469726562e+01 2.200000000000000000e+01
3.774048089981079102e-01 -1.751158758997917175e-02 9.040644764900207520e-02 9.500000000000000000e+01 9.600000762939453125e+01 1.000000076293945312e+02
3.980756998062133789e-01 1.849241741001605988e-02 1.475538015365600586e-01 9.500000000000000000e+01 9.600000762939453125e+01 1.000000076293945312e+02
-1.279980540275573730e-01 2.327274531126022339e-02 8.397210389375686646e-02 1.020000076293945312e+02 6.000000381469726562e+01 3.500000000000000000e+01
-1.812970489263534546e-01 -1.674965210258960724e-02 8.622711151838302612e-02 1.010000076293945312e+02 5.300000381469726562e+01 2.400000190734863281e+01
-4.472244381904602051e-01 2.114039100706577301e-02 5.166410654783248901e-02 1.060000076293945312e+02 6.000000381469726562e+01 3.400000000000000000e+01
8.618693798780441284e-02 4.203298129141330719e-03 1.614176034927368164e-01 9.500000000000000000e+01 9.600000762939453125e+01 1.000000076293945312e+02
1.691799163818359375e-01 2.279535308480262756e-02 1.125990301370620728e-01 9.600000762939453125e+01 9.700000762939453125e+01 1.010000076293945312e+02
-4.729620814323425293e-01 -1.630969159305095673e-02 7.852724753320217133e-03 1.020000076293945312e+02 5.500000381469726562e+01 2.700000190734863281e+01
-2.006948590278625488e-01 -1.662662252783775330e-02 2.883050031960010529e-02 1.050000076293945312e+02 5.400000381469726562e+01 2.300000000000000000e+01
-1.308550834655761719e-01 2.308292314410209656e-02 4.012927412986755371e-02 1.060000076293945312e+02 6.100000381469726562e+01 3.300000000000000000e+01
1.508701890707015991e-01 -1.508902851492166519e-02 -1.138018444180488586e-01 9.900000762939453125e+01 5.200000381469726562e+01 2.100000000000000000e+01
-5.452426150441169739e-02 -1.584437116980552673e-02 1.027279049158096313e-01 9.700000762939453125e+01 8.100000000000000000e+01 7.500000000000000000e+01
1.793520301580429077e-01 2.269552834331989288e-02 -7.121749967336654663e-02 1.010000076293945312e+02 5.300000381469726562e+01 2.200000000000000000e+01
8.448631502687931061e-03 2.270834892988204956e-02 -9.143833816051483154e-02 1.030000076293945312e+02 5.800000381469726562e+01 3.000000190734863281e+01
-3.971136808395385742e-01 8.064329624176025391e-03 9.405946731567382812e-02 1.000000076293945312e+02 5.500000381469726562e+01 2.900000190734863281e+01
-1.276470571756362915e-01 -9.443206712603569031e-03 1.525448560714721680e-01 9.500000000000000000e+01 9.600000762939453125e+01 1.000000076293945312e+02
3.648504912853240967e-01 2.176316082477569580e-02 1.450840234756469727e-01 9.500000000000000000e+01 9.600000762939453125e+01 1.000000076293945312e+02
-1.509415656328201294e-01 2.294963970780372620e-02 7.964092493057250977e-02 1.030000076293945312e+02 6.000000381469726562e+01 3.500000000000000000e+01
1.333396583795547485e-01 -1.605939492583274841e-02 6.709861755371093750e-02 1.040000076293945312e+02 5.400000381469726562e+01 2.400000190734863281e+01
-3.827369809150695801e-01 9.940416552126407623e-03 9.279464930295944214e-02 9.700000762939453125e+01 5.500000381469726562e+01 2.900000190734863281e+01
-8.048720657825469971e-02 2.205350436270236969e-02 1.124201118946075439e-01 9.700000762939453125e+01 9.700000762939453125e+01 1.010000076293945312e+02
-2.284033223986625671e-02 -1.600586995482444763e-02 -5.566819757223129272e-02 1.030000076293945312e+02 5.400000381469726562e+01 2.300000000000000000e+01
1.397927254438400269e-01 -1.641499251127243042e-02 -2.788193058222532272e-03 1.000000076293945312e+02 5.300000381469726562e+01 2.300000000000000000e+01
3.607035875320434570e-01 -1.287294086068868637e-02 3.425033390522003174e-02 1.750000000000000000e+02 1.860000000000000000e+02 2.000000152587890625e+02
-2.874869406223297119e-01 2.231074683368206024e-02 3.361691161990165710e-02 1.020000076293945312e+02 5.900000381469726562e+01 3.400000000000000000e+01
3.114432990550994873e-01 2.326451428234577179e-02 9.344793111085891724e-02 9.600000762939453125e+01 9.700000762939453125e+01 1.000000076293945312e+02
4.409351199865341187e-02 2.418216131627559662e-02 9.219323843717575073e-02 9.900000762939453125e+01 5.700000381469726562e+01 3.300000000000000000e+01
-5.457019805908203125e-02 2.397191897034645081e-02 1.533327158540487289e-04 9.800000762939453125e+01 5.500000381469726562e+01 3.000000190734863281e+01
-2.224618941545486450e-02 -1.688651368021965027e-02 9.115803241729736328e-02 1.000000076293945312e+02 5.400000381469726562e+01 2.700000190734863281e+01
2.191594839096069336e-01 2.490520663559436798e-02 -9.563447907567024231e-03 9.500000000000000000e+01 5.200000381469726562e+01 2.500000190734863281e+01
-6.676053255796432495e-02 -1.321598701179027557e-02 1.591550111770629883e-01 9.500000000000000000e+01 9.600000762939453125e+01 1.000000076293945312e+02
-3.094886839389801025e-01 8.791885338723659515e-03 9.139207005500793457e-02 9.700000762939453125e+01 5.400000381469726562e+01 2.900000190734863281e+01
2.412910014390945435e-02 -1.627447269856929779e-02 -9.339224547147750854e-02 1.000000076293945312e+02 5.300000381469726562e+01 2.300000000000000000e+01
4.671083986759185791e-01 -1.792751252651214600e-02 8.814224600791931152e-02 9.500000000000000000e+01 9.600000762939453125e+01 1.000000076293945312e+02
9.889250993728637695e-02 -1.679350249469280243e-02 4.353316128253936768e-02 1.010000076293945312e+02 5.200000381469726562e+01 2.200000000000000000e+01
-1.836385726928710938e-01 2.277940511703491211e-02 -4.381394013762474060e-03 1.050000076293945312e+02 5.900000381469726562e+01 3.200000000000000000e+01
-1.527962982654571533e-01 2.288094721734523773e-02 -3.678661305457353592e-03 1.030000076293945312e+02 5.900000381469726562e+01 3.200000000000000000e+01
1.989996731281280518e-01 1.886833831667900085e-02 1.523274183273315430e-01 9.500000000000000000e+01 9.600000762939453125e+01 1.000000076293945312e+02
-1.570102870464324951e-01 2.290588244795799255e-02 2.027103211730718613e-03 1.030000076293945312e+02 5.900000381469726562e+01 3.200000000000000000e+01
4.832607209682464600e-01 1.247897464781999588e-02 7.569397985935211182e-02 9.500000000000000000e+01 9.600000762939453125e+01 1.000000076293945312e+02
-2.729720473289489746e-01 2.192179672420024872e-02 8.939450979232788086e-02 9.800000762939453125e+01 5.600000381469726562e+01 3.300000000000000000e+01
1.575138270854949951e-01 2.511441148817539215e-02 4.448338970541954041e-02 1.050000076293945312e+02 5.600000381469726562e+01 2.700000190734863281e+01
-3.003069162368774414e-01 -1.718596182763576508e-02 7.871520519256591797e-02 1.000000076293945312e+02 5.400000381469726562e+01 2.800000190734863281e+01
-4.791421070694923401e-02 2.406339533627033234e-02 6.157936900854110718e-02 9.900000762939453125e+01 5.600000381469726562e+01 3.000000190734863281e+01
3.278833925724029541e-01 2.230284176766872406e-02 1.330950260162353516e-01 9.600000762939453125e+01 9.700000762939453125e+01 1.000000076293945312e+02
-3.672295212745666504e-01 -1.752118393778800964e-02 8.472891151905059814e-02 1.030000076293945312e+02 5.500000381469726562e+01 2.700000190734863281e+01
-1.582778841257095337e-01 2.320471033453941345e-02 7.831640541553497314e-02 1.040000076293945312e+02 6.000000381469726562e+01 3.400000000000000000e+01
-4.044782221317291260e-01 -1.699324510991573334e-02 4.826286062598228455e-02 1.020000076293945312e+02 5.300000381469726562e+01 2.600000190734863281e+01
-3.580837547779083252e-01 6.745596881955862045e-03 9.221512079238891602e-02 9.700000762939453125e+01 5.400000381469726562e+01 2.900000190734863281e+01
1.631858497858047485e-01 -1.721117645502090454e-02 9.109337627887725830e-02 9.800000762939453125e+01 7.200000000000000000e+01 5.900000381469726562e+01
8.654042333364486694e-02 -1.614080928266048431e-02 -4.161322861909866333e-02 1.040000076293945312e+02 5.400000381469726562e+01 2.400000190734863281e+01
4.910640716552734375e-01 -1.760287024080753326e-02 1.045768633484840393e-01 9.500000000000000000e+01 9.600000762939453125e+01 9.900000762939453125e+01
3.087240755558013916e-01 1.344184577465057373e-02 2.750568650662899017e-02 1.760000000000000000e+02 1.860000000000000000e+02 2.010000152587890625e+02
3.373880684375762939e-01 1.702790521085262299e-02 3.939629346132278442e-02 1.760000000000000000e+02 1.860000000000000000e+02 2.010000152587890625e+02
-3.006861805915832520e-01 1.277955714613199234e-02 -2.380247926339507103e-03 1.060000076293945312e+02 5.700000381469726562e+01 2.800000190734863281e+01
-1.378865987062454224e-01 2.321389131247997284e-02 2.504420652985572815e-02 1.030000076293945312e+02 5.900000381469726562e+01 3.200000000000000000e+01
-8.856529742479324341e-02 -1.627143472433090210e-02 8.677264302968978882e-02 1.020000076293945312e+02 5.400000381469726562e+01 2.400000190734863281e+01
1.218240931630134583e-01 2.531872503459453583e-02 3.746098652482032776e-02 1.040000076293945312e+02 5.600000381469726562e+01 2.800000190734863281e+01
-3.962405920028686523e-01 1.685119606554508209e-02 -1.341213239356875420e-03 1.070000076293945312e+02 5.800000381469726562e+01 2.900000190734863281e+01
2.247064188122749329e-02 -1.700515858829021454e-02 -7.697516120970249176e-03 9.700000762939453125e+01 5.300000381469726562e+01 2.500000190734863281e+01
-3.465247154235839844e-01 -3.979645203799009323e-03 9.201533347368240356e-02 9.700000762939453125e+01 5.400000381469726562e+01 2.900000190734863281e+01
-2.931874394416809082e-01 1.953124068677425385e-02 -4.092295654118061066e-03 1.060000076293945312e+02 5.800000381469726562e+01 2.900000190734863281e+01
-2.315156608819961548e-01 -1.681656017899513245e-02 2.907850779592990875e-03 1.040000076293945312e+02 5.400000381469726562e+01 2.400000190734863281e+01
2.353145927190780640e-01 1.633659121580421925e-03 8.308892138302326202e-03 1.020000076293945312e+02 5.300000381469726562e+01 2.200000000000000000e+01
1.871382743120193481e-01 2.484373003244400024e-02 -7.001793477684259415e-03 9.600000762939453125e+01 5.200000381469726562e+01 2.500000190734863281e+01
-4.036573320627212524e-02 1.357631944119930267e-02 -4.895780608057975769e-02 9.900000762939453125e+01 5.300000381469726562e+01 2.500000190734863281e+01
5.184079706668853760e-02 2.498415857553482056e-02 6.784903258085250854e-02 1.050000076293945312e+02 5.900000381469726562e+01 3.200000000000000000e+01
1.162594035267829895e-01 2.455002255737781525e-02 -6.323827058076858521e-02 1.050000076293945312e+02 5.700000381469726562e+01 2.800000190734863281e+01
2.894702851772308350e-01 2.305663377046585083e-02 1.207123100757598877e-01 9.600000762939453125e+01 9.700000762939453125e+01 1.010000076293945312e+02
-2.144722789525985718e-01 -3.189029404893517494e-03 9.150006622076034546e-02 9.600000762939453125e+01 5.300000381469726562e+01 2.700000190734863281e+01
7.640222460031509399e-02 2.280244044959545135e-02 1.047344803810119629e-01 9.600000762939453125e+01 9.700000762939453125e+01 1.010000076293945312e+02
-4.798584282398223877e-01 2.182289771735668182e-02 5.361193325370550156e-03 1.080000076293945312e+02 6.000000381469726562e+01 3.200000000000000000e+01
-3.559185266494750977e-01 2.139475569128990173e-02 2.372718974947929382e-02 1.020000076293945312e+02 5.800000381469726562e+01 3.400000000000000000e+01
-1.568087637424468994e-01 1.980500668287277222e-02 1.136974170804023743e-01 9.700000762939453125e+01 9.700000762939453125e+01 1.010000076293945312e+02
2.244759500026702881e-01 -1.366484351456165314e-02 1.499398648738861084e-01 9.500000000000000000e+01 9.600000762939453125e+01 1.000000076293945312e+02
-1.336128860712051392e-01 1.562037970870733261e-02 1.655710339546203613e-01 9.500000000000000000e+01 9.600000762939453125e+01 1.000000076293945312e+02
3.419368714094161987e-02 2.433995530009269714e-02 -2.148575894534587860e-02 9.900000762939453125e+01 5.500000381469726562e+01 2.800000190734863281e+01
8.362938463687896729e-02 -1.627095229923725128e-02 1.196562871336936951e-01 9.500000000000000000e+01 9.600000762939453125e+01 1.000000076293945312e+02
-9.957692027091979980e-02 -1.661652140319347382e-02 5.803866311907768250e-02 1.030000076293945312e+02 5.300000381469726562e+01 2.200000000000000000e+01
2.660273015499114990e-01 2.295981720089912415e-02 8.337248861789703369e-02 9.600000762939453125e+01 9.700000762939453125e+01 1.010000076293945312e+02
-5.850969813764095306e-03 -1.728734932839870453e-02 2.616863884031772614e-02 1.010000076293945312e+02 5.300000381469726562e+01 2.300000000000000000e+01
9.263855963945388794e-02 -1.555243413895368576e-02 -1.023882701992988586e-01 1.000000076293945312e+02 5.300000381469726562e+01 2.300000000000000000e+01
-3.257089853286743164e-01 2.195420674979686737e-02 4.050583764910697937e-02 1.050000076293945312e+02 6.000000381469726562e+01 3.500000000000000000e+01
1.325759738683700562e-01 2.523504570126533508e-02 3.371273353695869446e-02 1.030000076293945312e+02 5.600000381469726562e+01 2.700000190734863281e+01
4.316482245922088623e-01 -1.784299686551094055e-02 1.072179079055786133e-01 9.500000000000000000e+01 9.600000762939453125e+01 1.000000076293945312e+02
3.482017517089843750e-01 -8.628814481198787689e-03 1.495120525360107422e-01 9.500000000000000000e+01 9.600000762939453125e+01 1.000000076293945312e+02
4.016799628734588623e-01 -1.718966290354728699e-02 1.175589561462402344e-01 9.500000000000000000e+01 9.600000762939453125e+01 1.000000076293945312e+02
-9.454598277807235718e-02 2.333874255418777466e-02 -3.748916834592819214e-02 1.040000076293945312e+02 5.800000381469726562e+01 3.000000190734863281e+01
-1.218474060297012329e-01 7.488432805985212326e-03 -4.433758184313774109e-02 1.030000076293945312e+02 5.400000381469726562e+01 2.400000190734863281e+01
-3.744521439075469971e-01 -1.761565916240215302e-02 3.003964759409427643e-02 1.020000076293945312e+02 5.300000381469726562e+01 2.500000190734863281e+01
2.666610181331634521e-01 -1.652156934142112732e-02 1.398952156305313110e-01 9.500000000000000000e+01 9.600000762939453125e+01 1.000000076293945312e+02
-1.599152237176895142e-01 2.272823639214038849e-02 -3.996228054165840149e-02 1.050000076293945312e+02 5.800000381469726562e+01 2.900000190734863281e+01
6.824724376201629639e-02 -1.620029285550117493e-02 -5.956722050905227661e-02 1.040000076293945312e+02 5.400000381469726562e+01 2.400000190734863281e+01
2.026193141937255859e-01 2.205663733184337616e-02 1.430716216564178467e-01 9.600000762939453125e+01 9.700000762939453125e+01 1.000000076293945312e+02
-1.385135762393474579e-02 1.071383897215127945e-02 -9.572263062000274658e-02 9.700000762939453125e+01 5.200000381469726562e+01 2.300000000000000000e+01
-2.750858664512634277e-01 2.148579061031341553e-02 1.580914109945297241e-02 1.040000076293945312e+02 5.900000381469726562e+01 3.400000000000000000e+01
-1.107622534036636353e-01 5.344651173800230026e-03 -4.422812908887863159e-02 1.020000076293945312e+02 5.400000381469726562e+01 2.400000190734863281e+01
-1.692341715097427368e-01 -1.702599786221981049e-02 8.405897766351699829e-02 1.020000076293945312e+02 5.300000381469726562e+01 2.400000190734863281e+01
2.009308040142059326e-01 -3.897561691701412201e-03 -4.422157257795333862e-02 9.800000762939453125e+01 5.200000381469726562e+01 2.100000000000000000e+01
1.639004200696945190e-01 -1.698690280318260193e-02 2.122222445905208588e-03 1.000000076293945312e+02 5.300000381469726562e+01 2.300000000000000000e+01
-4.813836514949798584e-01 2.196078561246395111e-02 5.090116336941719055e-02 1.090000076293945312e+02 6.000000381469726562e+01 3.400000000000000000e+01
4.765463769435882568e-01 2.194976806640625000e-02 1.153543293476104736e-01 9.600000762939453125e+01 9.700000762939453125e+01 1.000000076293945312e+02
2.933446876704692841e-02 -1.612114533782005310e-02 -8.251390606164932251e-02 1.010000076293945312e+02 5.300000381469726562e+01 2.300000000000000000e+01
-4.494512081146240234e-01 -1.326013822108507156e-02 9.433054924011230469e-02 1.010000076293945312e+02 5.400000381469726562e+01 2.600000190734863281e+01
-2.894055657088756561e-02 2.405503578484058380e-02 -5.099947005510330200e-02 1.040000076293945312e+02 5.800000381469726562e+01 3.000000190734863281e+01
1.423677355051040649e-01 -1.652703620493412018e-02 8.521322160959243774e-02 1.000000076293945312e+02 5.400000381469726562e+01 2.700000190734863281e+01
-1.730321943759918213e-01 -1.682223379611968994e-02 6.672336161136627197e-02 1.050000076293945312e+02 5.400000381469726562e+01 2.300000000000000000e+01
6.776191294193267822e-02 -1.623610593378543854e-02 -5.738942325115203857e-02 1.040000076293945312e+02 5.400000381469726562e+01 2.400000190734863281e+01
-3.759518638253211975e-02 2.388884499669075012e-02 3.179758042097091675e-02 1.030000076293945312e+02 5.800000381469726562e+01 3.100000190734863281e+01
1.421736925840377808e-02 -1.746679842472076416e-02 1.583517342805862427e-02 9.800000762939453125e+01 5.200000381469726562e+01 2.300000000000000000e+01
-3.563519418239593506e-01 2.148440852761268616e-02 3.463975340127944946e-02 1.060000076293945312e+02 6.000000381469726562e+01 3.500000000000000000e+01
1.703018397092819214e-01 -1.678831316530704498e-02 1.201095134019851685e-01 9.500000000000000000e+01 9.600000762939453125e+01 1.000000076293945312e+02
1.616604626178741455e-01 2.268324792385101318e-02 1.233609542250633240e-01 9.600000762939453125e+01 9.700000762939453125e+01 1.010000076293945312e+02
-4.081148654222488403e-02 -1.704600080847740173e-02 -5.836698110215365887e-04 1.010000076293945312e+02 5.300000381469726562e+01 2.300000000000000000e+01
-6.798378890380263329e-04 2.410060353577136993e-02 -1.545307226479053497e-02 9.900000762939453125e+01 5.500000381469726562e+01 2.900000190734863281e+01
-8.578737825155258179e-02 4.433596041053533554e-03 1.680774986743927002e-01 9.500000000000000000e+01 9.600000762939453125e+01 1.000000076293945312e+02
-4.595565795898437500e-01 -1.676952280104160309e-02 2.266797982156276703e-02 1.020000076293945312e+02 5.400000381469726562e+01 2.600000190734863281e+01
4.316925108432769775e-01 -1.742018014192581177e-02 1.166350990533828735e-01 9.500000000000000000e+01 9.600000762939453125e+01 1.000000076293945312e+02
1.402463912963867188e-01 2.459203824400901794e-02 6.589912623167037964e-02 1.030000076293945312e+02 5.700000381469726562e+01 2.900000190734863281e+01
-3.222824335098266602e-01 -1.756127737462520599e-02 2.784185297787189484e-02 1.020000076293945312e+02 5.300000381469726562e+01 2.500000190734863281e+01
1.744984239339828491e-01 2.485387958586215973e-02 5.919474735856056213e-02 1.050000076293945312e+02 5.600000381469726562e+01 2.700000190734863281e+01
-1.226487383246421814e-01 2.292878367006778717e-02 -1.358489971607923508e-02 1.040000076293945312e+02 5.900000381469726562e+01 3.200000000000000000e+01
1.645394861698150635e-01 -1.401901058852672577e-02 -1.161986440420150757e-01 9.900000762939453125e+01 5.200000381469726562e+01 2.000000000000000000e+01
-4.318887591361999512e-01 2.273963764309883118e-02 9.527450799942016602e-02 1.090000076293945312e+02 6.100000381469726562e+01 3.500000000000000000e+01
-1.761808693408966064e-01 -4.204680444672703743e-04 1.614582985639572144e-01 9.500000000000000000e+01 9.600000762939453125e+01 1.000000076293945312e+02
3.096074461936950684e-01 3.049665247090160847e-04 -4.516062326729297638e-03 1.800000000000000000e+02 1.910000000000000000e+02 2.050000152587890625e+02
9.527270495891571045e-02 2.438313141465187073e-02 -4.229687154293060303e-02 1.060000076293945312e+02 5.700000381469726562e+01 2.800000190734863281e+01
-1.177752390503883362e-01 2.313191629946231842e-02 4.013125598430633545e-02 1.060000076293945312e+02 6.100000381469726562e+01 3.300000000000000000e+01
1.634883582592010498e-01 -1.674693077802658081e-02 8.062002062797546387e-02 1.000000076293945312e+02 5.300000381469726562e+01 2.600000190734863281e+01
-2.650822699069976807e-01 -1.725171343423426151e-03 -3.911914303898811340e-03 1.040000076293945312e+02 5.500000381469726562e+01 2.500000190734863281e+01
1.107957493513822556e-02 -1.660312339663505554e-02 -3.972692042589187622e-02 1.040000076293945312e+02 5.400000381469726562e+01 2.300000000000000000e+01
-3.476628661155700684e-02 -1.735821366310119629e-02 2.126573026180267334e-02 1.020000076293945312e+02 5.300000381469726562e+01 2.200000000000000000e+01
-2.992549836635589600e-01 -7.200654596090316772e-03 -2.550616627559065819e-03 1.050000076293945312e+02 5.600000381469726562e+01 2.700000190734863281e+01
1.568178534507751465e-01 -1.552163995802402496e-02 -9.527996182441711426e-02 1.000000076293945312e+02 5.200000381469726562e+01 2.100000000000000000e+01
3.653116226196289062e-01 -7.610375061631202698e-03 6.400806456804275513e-02 9.500000000000000000e+01 9.600000762939453125e+01 1.000000076293945312e+02
-3.403686732053756714e-02 -1.647137850522994995e-02 -2.408614195883274078e-02 1.030000076293945312e+02 5.400000381469726562e+01 2.300000000000000000e+01
-1.864726543426513672e-01 -1.676054671406745911e-02 6.167850270867347717e-02 1.050000076293945312e+02 5.400000381469726562e+01 2.300000000000000000e+01
1.927276551723480225e-01 2.455635368824005127e-02 8.901222608983516693e-03 9.700000762939453125e+01 5.200000381469726562e+01 2.500000190734863281e+01
8.809570968151092529e-02 2.499842643737792969e-02 4.835615679621696472e-02 1.010000076293945312e+02 5.600000381469726562e+01 2.800000190734863281e+01
7.156464457511901855e-02 -1.625172048807144165e-02 -8.115744590759277344e-02 1.010000076293945312e+02 5.400000381469726562e+01 2.400000190734863281e+01
-4.123225212097167969e-01 -1.721638441085815430e-02 3.932611271739006042e-02 1.020000076293945312e+02 5.300000381469726562e+01 2.600000190734863281e+01
2.368944883346557617e-01 2.253145724534988403e-02 1.367189884185791016e-01 9.600000762939453125e+01 9.700000762939453125e+01 1.010000076293945312e+02
7.172621786594390869e-02 2.488866634666919708e-02 1.074313838034868240e-02 9.800000762939453125e+01 5.400000381469726562e+01 2.800000190734863281e+01
1.728620380163192749e-01 -1.623763144016265869e-02 -3.487416356801986694e-02 1.010000076293945312e+02 5.300000381469726562e+01 2.200000000000000000e+01
-7.064615376293659210e-03 2.233921736478805542e-02 1.118230819702148438e-01 9.600000762939453125e+01 9.700000762939453125e+01 1.010000076293945312e+02
4.056218564510345459e-01 -3.316379385069012642e-03 5.168653279542922974e-02 1.520000000000000000e+02 1.600000000000000000e+02 1.710000000000000000e+02
1.625349521636962891e-01 2.507241629064083099e-02 1.131462398916482925e-02 9.800000762939453125e+01 5.300000381469726562e+01 2.600000190734863281e+01
-4.179661273956298828e-01 -1.555945351719856262e-02 -5.816576885990798473e-04 1.030000076293945312e+02 5.500000381469726562e+01 2.600000190734863281e+01
3.098306059837341309e-01 -1.271030213683843613e-02 6.401931494474411011e-02 9.500000000000000000e+01 9.600000762939453125e+01 1.000000076293945312e+02
-3.449747264385223389e-01 -5.746010690927505493e-03 -1.211647409945726395e-03 1.050000076293945312e+02 5.700000381469726562e+01 2.700000190734863281e+01
2.270975559949874878e-01 2.258293516933917999e-02 7.616410404443740845e-02 9.600000762939453125e+01 9.700000762939453125e+01 1.010000076293945312e+02
3.082175552845001221e-01 -9.665314108133316040e-03 1.500789523124694824e-01 9.500000000000000000e+01 9.600000762939453125e+01 1.000000076293945312e+02
2.176294922828674316e-01 -1.273991726338863373e-02 1.510328948497772217e-01 9.500000000000000000e+01 9.600000762939453125e+01 1.000000076293945312e+02
-4.249169230461120605e-01 -1.667745970189571381e-02 6.121234036982059479e-05 1.020000076293945312e+02 5.500000381469726562e+01 2.600000190734863281e+01
-2.108020037412643433e-01 1.723251491785049438e-02 1.376018822193145752e-01 9.600000762939453125e+01 9.700000762939453125e+01 1.010000076293945312e+02
-4.483864307403564453e-01 2.157723531126976013e-02 4.093082621693611145e-02 1.070000076293945312e+02 6.000000381469726562e+01 3.400000000000000000e+01
1.063185408711433411e-01 9.879627265036106110e-03 -1.222131177783012390e-01 1.020000076293945312e+02 5.300000381469726562e+01 2.200000000000000000e+01
2.092854976654052734e-01 -1.692133769392967224e-02 -1.648601610213518143e-04 9.500000000000000000e+01 5.100000381469726562e+01 2.300000000000000000e+01
3.796984255313873291e-01 8.308817632496356964e-03 1.497526764869689941e-01 9.500000000000000000e+01 9.600000762939453125e+01 1.000000076293945312e+02
-7.842590659856796265e-02 -1.165626011788845062e-02 1.637387722730636597e-01 9.500000000000000000e+01 9.600000762939453125e+01 1.000000076293945312e+02
9.227543137967586517e-03 -1.600863784551620483e-02 -3.777790442109107971e-02 1.040000076293945312e+02 5.400000381469726562e+01 2.300000000000000000e+01
-1.828504318837076426e-04 -1.645727269351482391e-02 8.676348626613616943e-02 1.000000076293945312e+02 5.400000381469726562e+01 2.700000190734863281e+01
3.986527025699615479e-02 -9.366594254970550537e-03 -1.213179305195808411e-01 9.900000762939453125e+01 5.200000381469726562e+01 2.100000000000000000e+01
1.211697608232498169e-01 -1.705714873969554901e-02 2.250736765563488007e-02 1.010000076293945312e+02 5.300000381469726562e+01 2.300000000000000000e+01
7.934239506721496582e-02 2.414721995592117310e-02 -3.141625225543975830e-02 1.010000076293945312e+02 5.500000381469726562e+01 2.700000190734863281e+01
7.236299663782119751e-02 -1.616338640451431274e-02 1.111910790205001831e-01 9.500000000000000000e+01 9.600000762939453125e+01 1.000000076293945312e+02
-1.269581764936447144e-01 -1.678231358528137207e-02 5.484842509031295776e-02 1.010000076293945312e+02 5.200000381469726562e+01 2.100000000000000000e+01
-3.918036520481109619e-01 2.174745313823223114e-02 1.118715479969978333e-02 1.020000076293945312e+02 5.800000381469726562e+01 3.300000000000000000e+01
1.027966663241386414e-01 2.492883801460266113e-02 6.430150568485260010e-02 1.010000076293945312e+02 5.600000381469726562e+01 2.900000190734863281e+01
-8.012472093105316162e-02 1.796372793614864349e-02 1.665887981653213501e-01 9.600000762939453125e+01 9.700000762939453125e+01 1.000000076293945312e+02
-9.404810518026351929e-02 4.709491040557622910e-04 -4.127658903598785400e-02 9.700000762939453125e+01 5.200000381469726562e+01 2.400000190734863281e+01
3.714761137962341309e-01 -1.303868927061557770e-02 2.833040989935398102e-02 1.770000000000000000e+02 1.880000000000000000e+02 2.020000152587890625e+02
1.876438707113265991e-01 2.472365647554397583e-02 -3.520764037966728210e-02 1.030000076293945312e+02 5.500000381469726562e+01 2.500000190734863281e+01
1.948959827423095703e-01 -9.247986599802970886e-03 1.526481509208679199e-01 9.500000000000000000e+01 9.600000762939453125e+01 1.000000076293945312e+02
2.701712846755981445e-01 -5.489853676408529282e-03 3.821483999490737915e-02 1.760000000000000000e+02 1.870000000000000000e+02 2.010000152587890625e+02
1.942915767431259155e-01 2.482757531106472015e-02 6.857881695032119751e-02 1.020000076293945312e+02 5.500000381469726562e+01 2.800000190734863281e+01
2.049990743398666382e-01 -5.567017942667007446e-03 1.527661532163619995e-01 9.500000000000000000e+01 9.600000762939453125e+01 1.000000076293945312e+02
1.361859440803527832e-01 2.412079274654388428e-02 -5.605611577630043030e-02 1.050000076293945312e+02 5.700000381469726562e+01 2.700000190734863281e+01
2.140331268310546875e-02 2.270989865064620972e-02 1.016025766730308533e-01 9.800000762939453125e+01 8.500000000000000000e+01 8.100000000000000000e+01
4.358181729912757874e-02 2.402149885892868042e-02 -5.343777313828468323e-02 1.060000076293945312e+02 5.800000381469726562e+01 2.900000190734863281e+01
9.033235162496566772e-02 -1.620195806026458740e-02 7.392891496419906616e-02 1.010000076293945312e+02 5.300000381469726562e+01 2.500000190734863281e+01
-1.316006630659103394e-01 2.275897935032844543e-02 -6.622926797717809677e-03 1.040000076293945312e+02 5.900000381469726562e+01 3.200000000000000000e+01
8.641324192285537720e-02 -1.705141551792621613e-02 5.368964001536369324e-02 1.010000076293945312e+02 5.200000381469726562e+01 2.200000000000000000e+01
2.552560269832611084e-01 2.234472776763141155e-04 -1.023231260478496552e-02 1.240000076293945312e+02 1.140000076293945312e+02 1.090000076293945312e+02
1.235944777727127075e-01 2.461838535964488983e-02 -2.148974873125553131e-02 9.800000762939453125e+01 5.300000381469726562e+01 2.600000190734863281e+01
-4.750026464462280273e-01 -1.613008789718151093e-02 7.532023638486862183e-02 1.010000076293945312e+02 5.400000381469726562e+01 2.700000190734863281e+01
2.030588388442993164e-01 -1.750671491026878357e-02 7.374695688486099243e-02 9.700000762939453125e+01 5.400000381469726562e+01 2.800000190734863281e+01
-6.955974549055099487e-02 2.385614626109600067e-02 5.685559660196304321e-02 9.800000762939453125e+01 5.600000381469726562e+01 3.000000190734863281e+01
-4.040322601795196533e-01 -4.931806121021509171e-03 -6.275092600844800472e-04 1.050000076293945312e+02 5.600000381469726562e+01 2.700000190734863281e+01
-4.440208375453948975e-01 -1.579474657773971558e-02 7.081124931573867798e-02 1.020000076293945312e+02 5.400000381469726562e+01 2.700000190734863281e+01
-1.846468001604080200e-01 2.374204814259428531e-05 9.210193157196044922e-02 9.600000762939453125e+01 5.200000381469726562e+01 2.600000190734863281e+01
2.528535723686218262e-01 1.390068326145410538e-02 6.347472220659255981e-02 9.500000000000000000e+01 9.600000762939453125e+01 1.000000076293945312e+02
-8.503992855548858643e-02 2.360715158283710480e-02 -3.843876719474792480e-02 1.010000076293945312e+02 5.600000381469726562e+01 2.900000190734863281e+01
4.782625436782836914e-01 2.189029753208160400e-02 1.226515471935272217e-01 9.500000000000000000e+01 9.700000762939453125e+01 1.000000076293945312e+02
-1.201271042227745056e-01 9.077063761651515961e-03 1.672544330358505249e-01 9.500000000000000000e+01 9.600000762939453125e+01 1.000000076293945312e+02
6.319702416658401489e-02 2.441794611513614655e-02 8.426758646965026855e-02 1.020000076293945312e+02 5.900000381469726562e+01 3.300000000000000000e+01
1.186816859990358353e-02 -1.725187711417675018e-02 3.039971366524696350e-02 1.010000076293945312e+02 5.200000381469726562e+01 2.200000000000000000e+01
3.900900185108184814e-01 -7.765993010252714157e-03 2.223576046526432037e-02 1.790000000000000000e+02 1.910000000000000000e+02 2.050000152587890625e+02
-3.904794901609420776e-02 2.448699809610843658e-02 6.430398672819137573e-02 1.000000076293945312e+02 5.700000381469726562e+01 3.100000190734863281e+01
-2.287468910217285156e-01 1.560197677463293076e-02 -6.212211679667234421e-03 1.050000076293945312e+02 5.600000381469726562e+01 2.700000190734863281e+01
5.725256353616714478e-02 -1.719699613749980927e-02 2.453654073178768158e-02 9.800000762939453125e+01 5.100000381469726562e+01 2.200000000000000000e+01
4.115962088108062744e-01 2.282080054283142090e-02 1.116902679204940796e-01 9.600000762939453125e+01 9.700000762939453125e+01 1.000000076293945312e+02
5.733756721019744873e-02 1.110486569814383984e-03 1.639708131551742554e-01 9.500000000000000000e+01 9.600000762939453125e+01 1.000000076293945312e+02
6.204377859830856323e-02 2.517653442919254303e-02 3.505848348140716553e-02 1.030000076293945312e+02 5.700000381469726562e+01 2.900000190734863281e+01
1.361006200313568115e-01 -1.637328788638114929e-02 -4.346320033073425293e-02 1.030000076293945312e+02 5.300000381469726562e+01 2.200000000000000000e+01
2.668904699385166168e-02 -1.614214107394218445e-02 -5.928223952651023865e-02 1.040000076293945312e+02 5.400000381469726562e+01 2.300000000000000000e+01
-3.847601413726806641e-01 -1.745826750993728638e-02 1.404461916536092758e-02 1.020000076293945312e+02 5.300000381469726562e+01 2.400000190734863281e+01
-4.978669285774230957e-01 -1.452824659645557404e-02 6.110202148556709290e-02 1.000000076293945312e+02 5.700000381469726562e+01 3.200000000000000000e+01
1.412228643894195557e-01 1.908070594072341919e-02 1.565631777048110962e-01 9.500000000000000000e+01 9.600000762939453125e+01 1.000000076293945312e+02
4.149089008569717407e-02 -1.728033646941184998e-02 3.123766276985406876e-03 9.600000762939453125e+01 5.200000381469726562e+01 2.400000190734863281e+01
-1.848928183317184448e-01 6.430839421227574348e-04 1.606243103742599487e-01 9.500000000000000000e+01 9.600000762939453125e+01 1.000000076293945312e+02
-1.640752702951431274e-01 -1.714706607162952423e-02 6.420353055000305176e-02 1.040000076293945312e+02 5.300000381469726562e+01 2.200000000000000000e+01
5.222610011696815491e-02 -1.680462621152400970e-02 7.844096422195434570e-02 1.000000076293945312e+02 5.400000381469726562e+01 2.600000190734863281e+01
-4.537661671638488770e-01 2.113250829279422760e-02 4.925869777798652649e-02 1.060000076293945312e+02 6.000000381469726562e+01 3.400000000000000000e+01
1.594534218311309814e-01 -1.724825426936149597e-02 1.223724409937858582e-01 9.500000000000000000e+01 9.600000762939453125e+01 1.000000076293945312e+02
-4.233787655830383301e-01 2.140175551176071167e-02 3.172494098544120789e-02 1.090000076293945312e+02 6.100000381469726562e+01 3.400000000000000000e+01
4.444767534732818604e-02 2.417198754847049713e-02 8.863215148448944092e-02 9.900000762939453125e+01 5.700000381469726562e+01 3.200000000000000000e+01
-3.843266963958740234e-01 -4.718091804534196854e-03 -5.950057529844343662e-04 1.050000076293945312e+02 5.700000381469726562e+01 2.800000190734863281e+01
-1.958659738302230835e-01 2.252345718443393707e-02 7.837482541799545288e-02 1.040000076293945312e+02 6.000000381469726562e+01 3.500000000000000000e+01
-1.692347675561904907e-01 2.169317752122879028e-02 9.449825435876846313e-02 1.000000076293945312e+02 6.800000000000000000e+01 5.100000381469726562e+01
1.602262407541275024e-01 2.541076019406318665e-02 6.769985705614089966e-02 1.050000076293945312e+02 5.700000381469726562e+01 2.900000190734863281e+01
-2.226232141256332397e-01 -1.728556863963603973e-02 6.678359955549240112e-02 1.040000076293945312e+02 5.400000381469726562e+01 2.400000190734863281e+01
-1.592375934123992920e-01 2.301504649221897125e-02 6.836138665676116943e-02 1.030000076293945312e+02 5.900000381469726562e+01 3.300000000000000000e+01
2.339917570352554321e-01 1.632994040846824646e-02 5.482356995344161987e-02 1.050000076293945312e+02 6.000000381469726562e+01 3.200000000000000000e+01
3.763529062271118164e-01 2.295098081231117249e-02 8.878476917743682861e-02 9.600000762939453125e+01 9.700000762939453125e+01 1.010000076293945312e+02
1.537780910730361938e-01 2.440921962261199951e-02 -6.165866926312446594e-02 1.030000076293945312e+02 5.600000381469726562e+01 2.600000190734863281e+01
-4.240312054753303528e-02 2.385316044092178345e-02 8.663440495729446411e-02 9.900000762939453125e+01 5.700000381469726562e+01 3.300000000000000000e+01
1.386126577854156494e-01 2.490847930312156677e-02 8.028122782707214355e-02 1.030000076293945312e+02 5.800000381469726562e+01 3.100000190734863281e+01
1.795019954442977905e-01 -1.635664515197277069e-02 -5.313184857368469238e-02 1.010000076293945312e+02 5.200000381469726562e+01 2.200000000000000000e+01
2.557595670223236084e-01 -1.305998768657445908e-02 2.536890562623739243e-03 1.300000000000000000e+02 1.250000076293945312e+02 1.250000076293945312e+02
1.356381475925445557e-01 -1.643090508878231049e-02 -1.842373050749301910e-02 1.010000076293945312e+02 5.300000381469726562e+01 2.300000000000000000e+01
1.360810920596122742e-02 -1.567856781184673309e-02 1.110794469714164734e-01 9.500000000000000000e+01 9.600000762939453125e+01 1.000000076293945312e+02
-1.597238779067993164e-01 -3.731789067387580872e-03 1.582293361425399780e-01 9.500000000000000000e+01 9.600000762939453125e+01 1.000000076293945312e+02
-4.825312793254852295e-01 -1.641354896128177643e-02 2.115906588733196259e-02 1.010000076293945312e+02 5.600000381469726562e+01 3.000000190734863281e+01
2.910265624523162842e-01 -1.387807074934244156e-02 3.312575817108154297e-02 1.740000000000000000e+02 1.850000000000000000e+02 1.990000152587890625e+02
2.426735311746597290e-02 -1.511287130415439606e-02 1.233959347009658813e-01 9.500000000000000000e+01 9.600000762939453125e+01 1.000000076293945312e+02
1.209167614579200745e-01 2.260053902864456177e-02 1.147711724042892456e-01 9.600000762939453125e+01 9.700000762939453125e+01 1.010000076293945312e+02
1.755832880735397339e-01 -1.644597202539443970e-02 1.250290125608444214e-01 9.500000000000000000e+01 9.600000762939453125e+01 1.000000076293945312e+02
3.484594821929931641e-01 2.313626371324062347e-02 1.080721840262413025e-01 9.600000762939453125e+01 9.700000762939453125e+01 1.000000076293945312e+02
3.761725127696990967e-02 2.291627787053585052e-02 -1.215592175722122192e-01 1.040000076293945312e+02 5.500000381469726562e+01 2.600000190734863281e+01
-2.067842781543731689e-01 -1.670431904494762421e-02 2.825068682432174683e-02 1.050000076293945312e+02 5.400000381469726562e+01 2.400000190734863281e+01
-4.624073207378387451e-01 2.140485867857933044e-02 1.432469487190246582e-02 1.080000076293945312e+02 6.000000381469726562e+01 3.300000000000000000e+01
1.328230649232864380e-01 2.416295744478702545e-02 -7.437378913164138794e-02 1.040000076293945312e+02 5.700000381469726562e+01 2.800000190734863281e+01
-3.214751929044723511e-02 -5.321755073964595795e-03 -5.390653759241104126e-02 9.900000762939453125e+01 5.400000381469726562e+01 2.400000190734863281e+01
1.773537993431091309e-01 -4.646145738661289215e-03 -8.389966934919357300e-02 1.000000076293945312e+02 5.300000381469726562e+01 2.100000000000000000e+01
-4.992324709892272949e-01 1.509412750601768494e-02 3.334471955895423889e-02 1.000000076293945312e+02 5.700000381469726562e+01 3.300000000000000000e+01
-4.346964061260223389e-01 -1.675171777606010437e-02 5.170021578669548035e-02 1.020000076293945312e+02 5.400000381469726562e+01 2.600000190734863281e+01
8.145538717508316040e-02 -1.531938649713993073e-02 1.316839754581451416e-01 9.500000000000000000e+01 9.600000762939453125e+01 1.000000076293945312e+02
6.217331066727638245e-02 -1.503634359687566757e-02 1.532640606164932251e-01 9.500000000000000000e+01 9.600000762939453125e+01 1.000000076293945312e+02
-2.547769248485565186e-01 -1.718979328870773315e-02 2.473660930991172791e-02 1.030000076293945312e+02 5.400000381469726562e+01 2.400000190734863281e+01
-1.581089645624160767e-01 7.812066935002803802e-03 1.640690416097640991e-01 9.500000000000000000e+01 9.600000762939453125e+01 1.000000076293945312e+02
-2.072453945875167847e-01 -1.672686822712421417e-02 -9.081907919608056545e-04 1.050000076293945312e+02 5.500000381469726562e+01 2.400000190734863281e+01
4.055362641811370850e-01 1.540342811495065689e-02 1.485912501811981201e-01 9.500000000000000000e+01 9.600000762939453125e+01 1.000000076293945312e+02
4.487468302249908447e-02 2.373785153031349182e-02 -9.149011969566345215e-02 1.030000076293945312e+02 5.800000381469726562e+01 2.900000190734863281e+01
1.100308671593666077e-01 -1.572167314589023590e-02 -9.821759164333343506e-02 1.000000076293945312e+02 5.300000381469726562e+01 2.300000000000000000e+01
-3.383143544197082520e-01 2.426618710160255432e-03 9.158288687467575073e-02 9.700000762939453125e+01 5.400000381469726562e+01 2.900000190734863281e+01
-4.658811092376708984e-01 1.221667975187301636e-02 -4.264026356395334005e-04 1.040000076293945312e+02 5.500000381469726562e+01 2.600000190734863281e+01
1.751160249114036560e-02 -1.633523963391780853e-02 -7.795459032058715820e-02 1.010000076293945312e+02 5.400000381469726562e+01 2.300000000000000000e+01
-8.158098906278610229e-02 2.383046597242355347e-02 7.310784421861171722e-03 9.800000762939453125e+01 5.600000381469726562e+01 3.000000190734863281e+01
-3.103398084640502930e-01 -1.740967296063899994e-02 6.318040937185287476e-02 1.010000076293945312e+02 5.400000381469726562e+01 2.700000190734863281e+01
2.678036317229270935e-02 -1.657444611191749573e-02 -2.683082781732082367e-02 9.900000762939453125e+01 5.300000381469726562e+01 2.500000190734863281e+01
4.183633029460906982e-01 -1.713088527321815491e-02 8.498533070087432861e-02 9.500000000000000000e+01 9.600000762939453125e+01 1.000000076293945312e+02
1.088862493634223938e-01 -1.679903455078601837e-02 1.051165461540222168e-01 9.500000000000000000e+01 9.600000762939453125e+01 1.000000076293945312e+02
2.305224388837814331e-01 -1.674937829375267029e-02 -6.252234452404081821e-04 9.600000762939453125e+01 5.100000381469726562e+01 2.300000000000000000e+01
-1.207165513187646866e-02 -7.155117578804492950e-03 -9.775879234075546265e-02 9.800000762939453125e+01 5.300000381469726562e+01 2.300000000000000000e+01
1.870021224021911621e-01 2.515402249991893768e-02 5.659790709614753723e-02 1.040000076293945312e+02 5.500000381469726562e+01 2.700000190734863281e+01
2.243576645851135254e-01 -1.635840162634849548e-02 4.016275331377983093e-02 1.000000076293945312e+02 5.200000381469726562e+01 2.200000000000000000e+01
3.571621477603912354e-01 2.237291447818279266e-02 7.797557860612869263e-02 9.600000762939453125e+01 9.700000762939453125e+01 1.000000076293945312e+02
1.637010276317596436e-01 2.411528304219245911e-02 -6.609527021646499634e-02 1.030000076293945312e+02 5.500000381469726562e+01 2.600000190734863281e+01
-1.558633297681808472e-01 2.284090593457221985e-02 5.504227429628372192e-02 1.020000076293945312e+02 5.800000381469726562e+01 3.200000000000000000e+01
-4.516733586788177490e-01 -1.630618050694465637e-02 9.770898148417472839e-03 1.020000076293945312e+02 5.300000381469726562e+01 2.400000190734863281e+01
-3.421280384063720703e-01 2.189332805573940277e-02 6.972645409405231476e-03 1.040000076293945312e+02 5.900000381469726562e+01 3.300000000000000000e+01
-1.384904235601425171e-01 2.094792574644088745e-02 1.071920841932296753e-01 9.700000762939453125e+01 9.700000762939453125e+01 1.010000076293945312e+02
-1.441608816385269165e-01 -8.849842473864555359e-03 1.146743446588516235e-01 9.500000000000000000e+01 9.600000762939453125e+01 1.000000076293945312e+02
-4.164233803749084473e-01 2.191676758229732513e-02 3.800492361187934875e-02 1.090000076293945312e+02 6.100000381469726562e+01 3.500000000000000000e+01
-1.395777016878128052e-01 -7.476982660591602325e-03 1.548090130090713501e-01 9.500000000000000000e+01 9.600000762939453125e+01 1.000000076293945312e+02
-4.831234365701675415e-02 2.009867317974567413e-02 1.605087518692016602e-01 9.600000762939453125e+01 9.700000762939453125e+01 1.010000076293945312e+02
3.922218680381774902e-01 2.270111441612243652e-02 9.414707869291305542e-02 9.600000762939453125e+01 9.700000762939453125e+01 1.000000076293945312e+02
3.315402269363403320e-01 -1.705348119139671326e-02 1.198702454566955566e-01 9.500000000000000000e+01 9.600000762939453125e+01 1.000000076293945312e+02
-1.915904134511947632e-01 2.345588617026805878e-02 -1.957997307181358337e-02 1.070000076293945312e+02 6.000000381469726562e+01 3.100000190734863281e+01
2.344270944595336914e-01 1.226660516113042831e-02 5.772130098193883896e-04 1.000000076293945312e+02 5.200000381469726562e+01 2.100000000000000000e+01
4.761665761470794678e-01 2.163522131741046906e-02 1.434911042451858521e-01 9.500000000000000000e+01 9.600000762939453125e+01 1.000000076293945312e+02
4.762373268604278564e-01 5.091192200779914856e-03 1.472813338041305542e-01 9.500000000000000000e+01 9.600000762939453125e+01 1.000000076293945312e+02
-1.048914901912212372e-02 -1.755277253687381744e-02 1.883718930184841156e-02 1.010000076293945312e+02 5.300000381469726562e+01 2.300000000000000000e+01
-2.418669760227203369e-01 -7.992847822606563568e-03 9.099247306585311890e-02 9.700000762939453125e+01 5.400000381469726562e+01 2.900000190734863281e+01
7.929753512144088745e-03 1.701972819864749908e-02 1.650471240282058716e-01 9.600000762939453125e+01 9.700000762939453125e+01 1.000000076293945312e+02
1.824444234371185303e-01 -1.653823629021644592e-02 -6.062103435397148132e-03 9.800000762939453125e+01 5.200000381469726562e+01 2.300000000000000000e+01
6.692820042371749878e-02 -1.637517102062702179e-02 -9.001186490058898926e-02 1.000000076293945312e+02 5.300000381469726562e+01 2.300000000000000000e+01
